ply
format ascii 1.0
comment VCGLIB generated
element vertex 1051
property float x
property float y
property float z
property uchar red
property uchar green
property uchar blue
property uchar alpha
end_header
-0.043807 -0.017918 -0.060775 35 35 35 255 
-0.04912 -0.022156 -0.0608 41 41 41 255 
-0.050174 -0.024203 -0.05987 35 35 35 255 
-0.053331 -0.029709 -0.0608 41 41 41 255 
-0.054562 -0.032032 -0.0608 41 41 41 255 
-0.056843 -0.035345 -0.060758 47 47 47 255 
-0.058987 -0.036668 -0.0608 77 77 77 255 
-0.060641 -0.030868 -0.0608 77 77 77 255 
-0.06203 -0.029241 -0.0608 88 88 88 255 
-0.063921 -0.027415 -0.0608 112 112 112 255 
-0.065158 -0.021843 -0.0608 177 177 177 255 
-0.064831 -0.018981 -0.0608 183 183 183 255 
-0.064112 -0.016054 -0.060611 195 195 195 255 
-0.063793 -0.013708 -0.0608 195 195 195 255 
-0.062287 -0.011139 -0.060809 171 171 171 255 
-0.051472 0.002033 -0.058453 177 177 177 255 
-0.051116 0.003713 -0.0608 171 171 171 255 
-0.049499 0.00579 -0.0608 171 171 171 255 
-0.047321 0.007496 -0.0608 136 136 136 255 
-0.045778 0.010467 -0.058863 142 142 142 255 
-0.044282 0.01382 -0.058478 171 171 171 255 
-0.042472 0.016723 -0.059324 183 183 183 255 
-0.030104 0.0242 -0.06039 160 160 160 255 
-0.026302 0.026836 -0.0608 166 166 166 255 
-0.019213 0.02665 -0.058677 171 171 171 255 
-0.015925 0.027169 -0.058409 154 154 154 255 
-0.011254 0.031723 -0.060259 142 142 142 255 
-0.009413 0.033399 -0.059762 148 148 148 255 
-0.007309 0.03572 -0.0608 142 142 142 255 
-0.005059 0.037162 -0.0608 136 136 136 255 
-0.002289 0.037843 -0.0608 112 112 112 255 
0.000705 0.037959 -0.0608 106 106 106 255 
0.003297 0.037394 -0.0608 130 130 130 255 
0.005067 0.035743 -0.0608 124 124 124 255 
0.00608 0.032741 -0.060326 136 136 136 255 
0.006494 0.024893 -0.0608 130 130 130 255 
0.00645 0.020868 -0.060857 124 124 124 255 
0.006986 0.010469 -0.05977 136 136 136 255 
0.009054 -0.000949 -0.058796 166 166 166 255 
0.010367 -0.006346 -0.059623 154 154 154 255 
0.011437 -0.009438 -0.0608 142 142 142 255 
0.012853 -0.011927 -0.0608 154 154 154 255 
0.013542 -0.014607 -0.05972 142 142 142 255 
0.014253 -0.017037 -0.0608 189 189 189 255 
0.014342 -0.019843 -0.0608 189 189 189 255 
0.013376 -0.022625 -0.0608 148 148 148 255 
0.010608 -0.026041 -0.060844 142 142 142 255 
0.007444 -0.028397 -0.0608 124 124 124 255 
0.005459 -0.030241 -0.060632 124 124 124 255 
0.004924 -0.033505 -0.0608 142 142 142 255 
0.003848 -0.035779 -0.0608 154 154 154 255 
0.002275 -0.037932 -0.0608 136 136 136 255 
0.000713 -0.041621 -0.060889 148 148 148 255 
-0.001621 -0.047386 -0.060547 166 166 166 255 
-0.003442 -0.052846 -0.0608 148 148 148 255 
-0.009343 -0.063076 -0.058626 177 177 177 255 
-0.012179 -0.066264 -0.060777 160 160 160 255 
-0.014414 -0.067916 -0.0608 160 160 160 255 
-0.017002 -0.068782 -0.060694 148 148 148 255 
-0.059764 -0.044689 -0.0608 83 83 83 255 
-0.060428 -0.045781 -0.058315 100 100 100 255 
-0.062349 -0.046281 -0.059262 136 136 136 255 
-0.064661 -0.045398 -0.059557 148 148 148 255 
-0.06561 -0.042411 -0.0608 171 171 171 255 
-0.063166 -0.04 -0.063433 130 130 130 255 
-0.062053 -0.036716 -0.058258 71 71 71 255 
-0.059312 -0.039428 -0.0608 47 47 47 255 
-0.060397 -0.041401 -0.063433 88 88 88 255 
-0.058655 -0.04311 -0.0608 53 53 53 255 
-0.021974 -0.063872 -0.0608 35 35 35 255 
-0.019453 -0.064987 -0.0608 29 29 29 255 
-0.019489 -0.065702 -0.063433 100 100 100 255 
-0.019042 -0.066546 -0.0608 71 71 71 255 
-0.019615 -0.069265 -0.0608 130 130 130 255 
-0.021154 -0.070276 -0.0608 136 136 136 255 
-0.022909 -0.070453 -0.0608 130 130 130 255 
-0.024391 -0.068981 -0.0608 106 106 106 255 
-0.024998 -0.067189 -0.0608 88 88 88 255 
-0.027658 -0.074847 -0.0608 171 171 171 255 
-0.027755 -0.073618 -0.063433 171 171 171 255 
-0.029152 -0.073567 -0.0608 130 130 130 255 
-0.029694 -0.070474 -0.059338 83 83 83 255 
-0.028086 -0.069829 -0.0608 88 88 88 255 
-0.025147 -0.070915 -0.06156 142 142 142 255 
-0.024478 -0.071766 -0.0608 124 124 124 255 
-0.01478 -0.044554 -0.0608 17 17 17 255 
-0.06481 -0.024602 -0.0608 148 148 148 255 
0.006296 0.016164 -0.060088 142 142 142 255 
-0.063881 -0.053774 -0.061196 148 148 148 255 
-0.032398 -0.077818 -0.061198 154 154 154 255 
-0.057106 -0.037891 -0.058481 47 47 47 255 
-0.060697 -0.037103 -0.058149 59 59 59 255 
-0.063031 -0.03539 -0.058149 100 100 100 255 
-0.06539 -0.031692 -0.058149 160 160 160 255 
-0.065642 -0.028817 -0.058149 166 166 166 255 
-0.065968 -0.026168 -0.058149 189 189 189 255 
-0.065798 -0.023457 -0.058149 195 195 195 255 
-0.064852 -0.020748 -0.058149 189 189 189 255 
-0.063525 -0.018308 -0.058149 160 160 160 255 
-0.061888 -0.013261 -0.058149 171 171 171 255 
-0.060385 -0.009892 -0.058055 177 177 177 255 
-0.055543 -0.003738 -0.058318 177 177 177 255 
-0.048718 0.003588 -0.058149 154 154 154 255 
-0.047716 0.006554 -0.058149 166 166 166 255 
-0.03902 0.019677 -0.058129 189 189 189 255 
-0.036136 0.020893 -0.058149 189 189 189 255 
-0.033379 0.021383 -0.058149 177 177 177 255 
-0.030012 0.022482 -0.058151 166 166 166 255 
-0.025073 0.024665 -0.058028 166 166 166 255 
-0.013272 0.028481 -0.058149 154 154 154 255 
-0.00797 0.034604 -0.058149 148 148 148 255 
-0.006212 0.036721 -0.058149 148 148 148 255 
-0.003889 0.038246 -0.058149 154 154 154 255 
-0.001487 0.039388 -0.058149 136 136 136 255 
0.001417 0.039697 -0.058149 124 124 124 255 
0.005646 0.037179 -0.058149 130 130 130 255 
0.006574 0.034066 -0.05534 154 154 154 255 
0.006373 0.029538 -0.055577 136 136 136 255 
0.006521 0.02442 -0.058253 148 148 148 255 
0.004217 0.010657 -0.05504 136 136 136 255 
0.004714 0.005855 -0.055526 124 124 124 255 
0.009508 -0.007897 -0.057776 160 160 160 255 
0.010049 -0.010702 -0.056654 142 142 142 255 
0.012448 -0.015454 -0.05401 166 166 166 255 
0.014462 -0.018284 -0.058149 171 171 171 255 
0.014113 -0.021179 -0.058149 183 183 183 255 
0.011474 -0.025847 -0.056785 160 160 160 255 
0.008138 -0.029137 -0.056729 142 142 142 255 
0.004151 -0.03489 -0.058149 154 154 154 255 
0.003295 -0.037119 -0.058149 154 154 154 255 
0.001103 -0.040493 -0.058447 148 148 148 255 
-0.002756 -0.04862 -0.058037 148 148 148 255 
-0.00467 -0.054004 -0.058149 166 166 166 255 
-0.006319 -0.057764 -0.058106 160 160 160 255 
-0.010422 -0.064018 -0.055549 177 177 177 255 
-0.013504 -0.06833 -0.055586 171 171 171 255 
-0.015257 -0.069178 -0.058149 160 160 160 255 
-0.017996 -0.070126 -0.058149 136 136 136 255 
-0.020428 -0.07051 -0.058149 136 136 136 255 
-0.022198 -0.070165 -0.058149 100 100 100 255 
-0.023898 -0.069023 -0.058149 71 71 71 255 
-0.025685 -0.067483 -0.058149 65 65 65 255 
-0.02287 -0.057278 -0.058415 53 53 53 255 
-0.018031 -0.047426 -0.058219 29 29 29 255 
-0.017272 -0.044648 -0.058161 35 35 35 255 
-0.011722 -0.033085 -0.058187 23 23 23 255 
-0.011198 -0.028772 -0.058149 23 23 23 255 
-0.012456 -0.02492 -0.057995 11 11 11 255 
-0.01265 -0.021202 -0.058149 17 17 17 255 
-0.013223 -0.017839 -0.058149 11 11 11 255 
-0.014069 -0.014572 -0.058149 11 11 11 255 
-0.016685 -0.009706 -0.058161 17 17 17 255 
-0.018532 -0.007903 -0.058149 11 11 11 255 
-0.02057 -0.006529 -0.058149 17 17 17 255 
-0.023132 -0.007268 -0.058094 17 17 17 255 
-0.02688 -0.009315 -0.058149 17 17 17 255 
-0.031708 -0.011735 -0.058149 17 17 17 255 
-0.035114 -0.013043 -0.058218 23 23 23 255 
-0.038375 -0.015033 -0.058149 23 23 23 255 
-0.041264 -0.017042 -0.058205 29 29 29 255 
-0.044487 -0.01993 -0.058149 35 35 35 255 
-0.048055 -0.022569 -0.058144 41 41 41 255 
-0.050426 -0.028283 -0.058085 35 35 35 255 
-0.052613 -0.032437 -0.058149 41 41 41 255 
-0.054183 -0.034772 -0.058149 47 47 47 255 
-0.024526 -0.071365 -0.058149 106 106 106 255 
-0.02449 -0.073018 -0.058149 136 136 136 255 
-0.026033 -0.07448 -0.058149 154 154 154 255 
-0.025843 -0.074738 -0.0608 171 171 171 255 
-0.02782 -0.07492 -0.058149 160 160 160 255 
-0.031298 -0.072226 -0.055457 83 83 83 255 
-0.026588 -0.069718 -0.060226 77 77 77 255 
-0.024957 -0.069511 -0.055598 29 29 29 255 
-0.057551 -0.040534 -0.058149 47 47 47 255 
-0.05837 -0.041272 -0.0608 47 47 47 255 
-0.057702 -0.042499 -0.058149 47 47 47 255 
-0.058732 -0.044215 -0.058149 53 53 53 255 
-0.062687 -0.046442 -0.055582 106 106 106 255 
-0.065306 -0.043256 -0.058149 154 154 154 255 
-0.065171 -0.041157 -0.058149 154 154 154 255 
-0.065105 -0.04067 -0.0608 148 148 148 255 
-0.064299 -0.039021 -0.055786 100 100 100 255 
-0.063161 -0.037568 -0.058149 100 100 100 255 
-0.031091 -0.079183 -0.055503 183 183 183 255 
-0.034378 -0.078392 -0.055717 154 154 154 255 
-0.03301 -0.077353 -0.058958 160 160 160 255 
-0.030746 -0.076408 -0.055918 136 136 136 255 
-0.063182 -0.05404 -0.0589 148 148 148 255 
-0.064689 -0.054257 -0.058907 166 166 166 255 
-0.064651 -0.053359 -0.059243 160 160 160 255 
-0.063593 -0.053077 -0.05902 160 160 160 255 
-0.064528 -0.033786 -0.058149 124 124 124 255 
0.004364 0.038867 -0.058149 148 148 148 255 
-0.026698 -0.065375 -0.058149 47 47 47 255 
-0.05799 -0.038889 -0.058149 41 41 41 255 
-0.024001 -0.070859 -0.055515 65 65 65 255 
-0.027813 -0.067651 -0.055515 35 35 35 255 
-0.027301 -0.061747 -0.053666 41 41 41 255 
-0.025396 -0.05978 -0.055291 47 47 47 255 
-0.023002 -0.056249 -0.055266 41 41 41 255 
-0.021986 -0.053919 -0.055515 35 35 35 255 
-0.020767 -0.051256 -0.055515 35 35 35 255 
-0.020205 -0.048625 -0.055515 47 47 47 255 
-0.019877 -0.045905 -0.055515 41 41 41 255 
-0.017573 -0.03337 -0.055206 23 23 23 255 
-0.015823 -0.027557 -0.055593 17 17 17 255 
-0.015451 -0.023349 -0.055515 17 17 17 255 
-0.014967 -0.020723 -0.055515 17 17 17 255 
-0.014957 -0.017594 -0.055515 11 11 11 255 
-0.015639 -0.014539 -0.055515 17 17 17 255 
-0.017401 -0.011699 -0.055515 17 17 17 255 
-0.019576 -0.010159 -0.055515 17 17 17 255 
-0.02188 -0.009403 -0.055533 17 17 17 255 
-0.027167 -0.011185 -0.055514 17 17 17 255 
-0.029902 -0.01306 -0.055515 17 17 17 255 
-0.032319 -0.014992 -0.055498 17 17 17 255 
-0.0368 -0.017654 -0.055515 23 23 23 255 
-0.04079 -0.019566 -0.055503 29 29 29 255 
-0.04665 -0.023522 -0.05552 35 35 35 255 
-0.048182 -0.025512 -0.055515 35 35 35 255 
-0.049211 -0.02829 -0.055515 35 35 35 255 
-0.051043 -0.03204 -0.055522 35 35 35 255 
-0.053192 -0.034649 -0.055515 35 35 35 255 
-0.053882 -0.037538 -0.05551 29 29 29 255 
-0.054909 -0.04009 -0.055515 41 41 41 255 
-0.056056 -0.042487 -0.055515 41 41 41 255 
-0.057687 -0.044469 -0.055515 53 53 53 255 
-0.059226 -0.045868 -0.055515 65 65 65 255 
-0.06076 -0.04657 -0.055515 88 88 88 255 
-0.06391 -0.045674 -0.055515 112 112 112 255 
-0.065262 -0.043741 -0.055602 118 118 118 255 
-0.065523 -0.04136 -0.055515 124 124 124 255 
-0.065356 -0.036877 -0.055515 130 130 130 255 
-0.066116 -0.034253 -0.055515 160 160 160 255 
-0.066343 -0.031527 -0.055515 171 171 171 255 
-0.065395 -0.026347 -0.055515 183 183 183 255 
-0.064546 -0.023857 -0.055515 189 189 189 255 
-0.062543 -0.020068 -0.055492 148 148 148 255 
-0.061092 -0.015458 -0.055595 171 171 171 255 
-0.058298 -0.010132 -0.055462 148 148 148 255 
-0.052949 -0.003611 -0.055515 171 171 171 255 
-0.051701 -0.001461 -0.055515 166 166 166 255 
-0.048221 0.002977 -0.055515 142 142 142 255 
-0.046249 0.008027 -0.055402 154 154 154 255 
-0.04394 0.011903 -0.055507 160 160 160 255 
-0.041901 0.015596 -0.055537 160 160 160 255 
-0.038212 0.018654 -0.055515 166 166 166 255 
-0.035525 0.019409 -0.055515 183 183 183 255 
-0.03287 0.01937 -0.055515 166 166 166 255 
-0.025953 0.021079 -0.055397 154 154 154 255 
-0.018642 0.022545 -0.055477 142 142 142 255 
-0.014902 0.024234 -0.055515 154 154 154 255 
-0.012877 0.025994 -0.055515 142 142 142 255 
-0.011315 0.02806 -0.055515 154 154 154 255 
-0.009605 0.030047 -0.055515 142 142 142 255 
-0.006952 0.034231 -0.055266 142 142 142 255 
-0.005449 0.036671 -0.055515 142 142 142 255 
-0.003685 0.038812 -0.055515 142 142 142 255 
0.001258 0.041809 -0.055515 118 118 118 255 
0.003689 0.041804 -0.055515 106 106 106 255 
0.005846 0.038846 -0.055515 136 136 136 255 
0.005828 0.021586 -0.056169 148 148 148 255 
0.004598 0.014859 -0.05498 130 130 130 255 
0.010755 -0.013413 -0.054101 154 154 154 255 
0.01371 -0.017228 -0.055515 160 160 160 255 
0.013705 -0.020345 -0.054188 171 171 171 255 
0.012435 -0.023834 -0.052005 166 166 166 255 
0.010103 -0.027321 -0.054602 160 160 160 255 
0.00399 -0.032305 -0.055468 124 124 124 255 
0.002422 -0.0355 -0.055515 142 142 142 255 
0.002287 -0.037987 -0.055515 166 166 166 255 
0.001192 -0.040333 -0.055515 154 154 154 255 
0.00028 -0.042819 -0.055515 177 177 177 255 
-0.002892 -0.04889 -0.055538 166 166 166 255 
-0.005165 -0.054026 -0.055618 177 177 177 255 
-0.008324 -0.060701 -0.055482 166 166 166 255 
-0.015152 -0.07028 -0.055515 177 177 177 255 
-0.019922 -0.072728 -0.055515 148 148 148 255 
-0.022315 -0.072967 -0.055515 124 124 124 255 
-0.028312 -0.068837 -0.058149 59 59 59 255 
-0.026312 -0.068376 -0.055515 17 17 17 255 
-0.02426 -0.072355 -0.055515 94 94 94 255 
-0.025145 -0.073968 -0.055515 148 148 148 255 
-0.026271 -0.07474 -0.055515 142 142 142 255 
-0.029281 -0.074723 -0.055515 124 124 124 255 
-0.02956 -0.07417 -0.058149 142 142 142 255 
-0.0305 -0.073529 -0.055515 100 100 100 255 
-0.031483 -0.070627 -0.055515 65 65 65 255 
-0.029445 -0.067899 -0.055515 53 53 53 255 
-0.061763 -0.054517 -0.055515 106 106 106 255 
-0.06274 -0.055795 -0.055515 118 118 118 255 
-0.063947 -0.054941 -0.058149 166 166 166 255 
-0.064568 -0.05634 -0.055515 142 142 142 255 
-0.065752 -0.05535 -0.055515 171 171 171 255 
-0.066909 -0.053915 -0.054135 166 166 166 255 
-0.065942 -0.052054 -0.055056 166 166 166 255 
-0.064246 -0.051233 -0.055061 118 118 118 255 
-0.062547 -0.051622 -0.054962 88 88 88 255 
-0.061641 -0.052997 -0.055515 100 100 100 255 
-0.029674 -0.07788 -0.053534 136 136 136 255 
-0.032485 -0.080024 -0.055478 189 189 189 255 
-0.033739 -0.079438 -0.055639 177 177 177 255 
-0.031811 -0.075436 -0.055916 130 130 130 255 
-0.027918 -0.064765 -0.055393 47 47 47 255 
-0.018764 -0.038997 -0.055515 29 29 29 255 
-0.065944 -0.02893 -0.055515 177 177 177 255 
-0.048826 0.000382 -0.055515 124 124 124 255 
-0.030175 0.019722 -0.055515 160 160 160 255 
-0.001448 0.040451 -0.055515 136 136 136 255 
0.005073 0.040787 -0.055515 136 136 136 255 
2.2e-005 -0.032968 -0.055515 53 53 53 255 
-0.017375 -0.071625 -0.055515 177 177 177 255 
-0.027591 -0.075176 -0.055515 130 130 130 255 
-0.030558 -0.069011 -0.055515 65 65 65 255 
-0.028517 -0.074384 -0.052864 88 88 88 255 
-0.030233 -0.073498 -0.052864 77 77 77 255 
-0.031491 -0.072203 -0.052864 77 77 77 255 
-0.032012 -0.070381 -0.052864 71 71 71 255 
-0.031455 -0.067917 -0.052864 59 59 59 255 
-0.029495 -0.065621 -0.052864 47 47 47 255 
-0.027922 -0.063714 -0.052864 41 41 41 255 
-0.023579 -0.05388 -0.052864 41 41 41 255 
-0.023014 -0.051288 -0.052864 35 35 35 255 
-0.023122 -0.04884 -0.052864 47 47 47 255 
-0.02342 -0.046379 -0.052864 35 35 35 255 
-0.023035 -0.042289 -0.052689 29 29 29 255 
-0.022169 -0.038719 -0.052864 29 29 29 255 
-0.021841 -0.035222 -0.052864 23 23 23 255 
-0.022012 -0.031321 -0.052864 23 23 23 255 
-0.022827 -0.027363 -0.052864 23 23 23 255 
-0.024652 -0.023743 -0.052864 23 23 23 255 
-0.027077 -0.021062 -0.052864 29 29 29 255 
-0.029803 -0.020371 -0.052864 17 17 17 255 
-0.032626 -0.020714 -0.052864 17 17 17 255 
-0.035487 -0.021758 -0.052753 17 17 17 255 
-0.041498 -0.025 -0.052864 29 29 29 255 
-0.045103 -0.027734 -0.052864 29 29 29 255 
-0.048028 -0.031117 -0.052864 35 35 35 255 
-0.051889 -0.035969 -0.053228 35 35 35 255 
-0.054601 -0.041804 -0.052429 35 35 35 255 
-0.05823 -0.046498 -0.05314 53 53 53 255 
-0.059822 -0.047947 -0.052864 59 59 59 255 
-0.062243 -0.047712 -0.052864 65 65 65 255 
-0.063758 -0.04675 -0.052864 83 83 83 255 
-0.065225 -0.045127 -0.052864 106 106 106 255 
-0.066383 -0.043122 -0.052864 118 118 118 255 
-0.067167 -0.040351 -0.052864 148 148 148 255 
-0.067478 -0.037408 -0.052864 171 171 171 255 
-0.067164 -0.034594 -0.052864 183 183 183 255 
-0.066598 -0.031899 -0.052864 195 195 195 255 
-0.065319 -0.027546 -0.053173 189 189 189 255 
-0.06283 -0.020972 -0.052677 171 171 171 255 
-0.061102 -0.016192 -0.05279 177 177 177 255 
-0.057949 -0.011015 -0.052887 171 171 171 255 
-0.053653 -0.005996 -0.052864 154 154 154 255 
-0.052065 -0.003835 -0.052864 160 160 160 255 
-0.049475 -0.003972 -0.052864 112 112 112 255 
-0.048589 0.003152 -0.052864 154 154 154 255 
-0.046726 0.007534 -0.053209 142 142 142 255 
-0.044303 0.011495 -0.052539 177 177 177 255 
-0.042011 0.01495 -0.052864 177 177 177 255 
-0.039911 0.016754 -0.052864 177 177 177 255 
-0.037373 0.018016 -0.052864 195 195 195 255 
-0.033055 0.01802 -0.052831 166 166 166 255 
-0.028994 0.018526 -0.052864 166 166 166 255 
-0.023741 0.019253 -0.052864 160 160 160 255 
-0.019574 0.020239 -0.052928 148 148 148 255 
-0.016073 0.021844 -0.052864 142 142 142 255 
-0.013939 0.023627 -0.052864 154 154 154 255 
-0.01219 0.025759 -0.052864 160 160 160 255 
-0.009645 0.029038 -0.051968 148 148 148 255 
-0.007662 0.032071 -0.051401 142 142 142 255 
-0.006245 0.035371 -0.050494 142 142 142 255 
-0.003838 0.039503 -0.052942 136 136 136 255 
-0.000916 0.043983 -0.052864 136 136 136 255 
0.005003 0.045502 -0.052864 148 148 148 255 
0.00636 0.044143 -0.052864 171 171 171 255 
0.007037 0.041309 -0.052864 154 154 154 255 
0.006815 0.038405 -0.052864 148 148 148 255 
0.005365 0.022914 -0.050018 142 142 142 255 
0.004504 0.018147 -0.050704 142 142 142 255 
0.003145 0.00655 -0.052864 124 124 124 255 
0.003227 0.001903 -0.052493 130 130 130 255 
0.004889 -0.005917 -0.05238 142 142 142 255 
0.006015 -0.009344 -0.052864 136 136 136 255 
0.00803 -0.011681 -0.052778 142 142 142 255 
0.013409 -0.017483 -0.052864 154 154 154 255 
0.008939 -0.028587 -0.050084 160 160 160 255 
0.005266 -0.031906 -0.052753 142 142 142 255 
0.00172 -0.031987 -0.052864 77 77 77 255 
0.000376 -0.036233 -0.052864 106 106 106 255 
0.000254 -0.038956 -0.052864 142 142 142 255 
-0.000306 -0.041627 -0.052864 166 166 166 255 
-0.001855 -0.044278 -0.052677 177 177 177 255 
-0.005333 -0.051374 -0.052797 148 148 148 255 
-0.008246 -0.058732 -0.052943 171 171 171 255 
-0.013953 -0.066982 -0.052862 171 171 171 255 
-0.015552 -0.069551 -0.052864 166 166 166 255 
-0.017277 -0.071548 -0.052864 154 154 154 255 
-0.019185 -0.073404 -0.052864 160 160 160 255 
-0.021858 -0.074642 -0.052864 130 130 130 255 
-0.024853 -0.075146 -0.052864 124 124 124 255 
-0.026958 -0.075035 -0.052864 112 112 112 255 
-0.061496 -0.051444 -0.052864 65 65 65 255 
-0.060521 -0.05331 -0.052864 59 59 59 255 
-0.061996 -0.056132 -0.051719 100 100 100 255 
-0.063946 -0.05719 -0.052663 118 118 118 255 
-0.065704 -0.056669 -0.052864 148 148 148 255 
-0.066925 -0.055304 -0.052608 171 171 171 255 
-0.030356 -0.074875 -0.052864 94 94 94 255 
-0.029764 -0.07643 -0.052864 106 106 106 255 
-0.030333 -0.079199 -0.05288 154 154 154 255 
-0.032407 -0.080549 -0.052864 177 177 177 255 
-0.035494 -0.078204 -0.051173 100 100 100 255 
-0.035687 -0.076648 -0.050792 94 94 94 255 
-0.034744 -0.074684 -0.050429 71 71 71 255 
-0.033044 -0.074284 -0.052864 53 53 53 255 
-0.036706 -0.086382 -0.052903 195 195 195 255 
-0.03752 -0.085562 -0.052907 195 195 195 255 
-0.036745 -0.085726 -0.052864 195 195 195 255 
-0.059477 -0.051109 -0.050117 53 53 53 255 
-0.063804 -0.049405 -0.050238 53 53 53 255 
-0.067325 -0.046829 -0.050231 124 124 124 255 
-0.06814 -0.044321 -0.050231 148 148 148 255 
-0.068512 -0.041698 -0.050231 171 171 171 255 
-0.068057 -0.038844 -0.050231 183 183 183 255 
-0.067249 -0.036214 -0.050231 183 183 183 255 
-0.065681 -0.033187 -0.049089 166 166 166 255 
-0.061487 -0.026606 -0.044972 189 189 189 255 
-0.062333 -0.021511 -0.050225 189 189 189 255 
-0.060664 -0.017768 -0.05019 171 171 171 255 
-0.058021 -0.01366 -0.050213 177 177 177 255 
-0.054802 -0.009946 -0.050231 154 154 154 255 
-0.052948 -0.007997 -0.050231 154 154 154 255 
-0.050417 -0.006618 -0.050231 118 118 118 255 
-0.047674 -0.005891 -0.050231 59 59 59 255 
-0.047147 -0.003832 -0.052864 59 59 59 255 
-0.045856 -0.002923 -0.050231 53 53 53 255 
-0.048062 -0.001789 -0.052864 88 88 88 255 
-0.048689 -0.000314 -0.050231 130 130 130 255 
-0.049059 4.4e-005 -0.052864 136 136 136 255 
-0.048467 0.002447 -0.050231 154 154 154 255 
-0.04756 0.005012 -0.050231 166 166 166 255 
-0.045352 0.008824 -0.048525 160 160 160 255 
-0.041803 0.013603 -0.049105 183 183 183 255 
-0.039202 0.015633 -0.050231 171 171 171 255 
-0.036957 0.015593 -0.048688 177 177 177 255 
-0.031636 0.014647 -0.048089 136 136 136 255 
-0.029309 0.015066 -0.047638 154 154 154 255 
-0.025543 0.016825 -0.050231 142 142 142 255 
-0.022876 0.015528 -0.050231 124 124 124 255 
-0.019878 0.016381 -0.050231 124 124 124 255 
-0.01513 0.018938 -0.050231 142 142 142 255 
-0.013471 0.021366 -0.050231 136 136 136 255 
-0.012172 0.023749 -0.050231 160 160 160 255 
-0.010874 0.026131 -0.050231 154 154 154 255 
-0.00507 0.038135 -0.050231 166 166 166 255 
-0.002968 0.04182 -0.049979 154 154 154 255 
-0.001102 0.04512 -0.050231 148 148 148 255 
0.00181 0.045413 -0.052864 112 112 112 255 
0.00501 0.050935 -0.050231 177 177 177 255 
0.007501 0.045985 -0.050231 136 136 136 255 
0.007294 0.043232 -0.050231 136 136 136 255 
0.007065 0.037206 -0.049955 136 136 136 255 
0.002782 0.013493 -0.049511 112 112 112 255 
0.002459 0.008869 -0.050231 118 118 118 255 
0.00205 0.006184 -0.050231 124 124 124 255 
0.001863 0.003504 -0.050231 124 124 124 255 
0.004971 -0.009763 -0.050231 136 136 136 255 
0.005582 -0.012527 -0.047783 136 136 136 255 
0.012392 -0.017172 -0.049957 177 177 177 255 
0.013166 -0.020563 -0.050231 166 166 166 255 
0.010568 -0.026491 -0.050231 166 166 166 255 
0.006589 -0.030323 -0.048018 148 148 148 255 
0.001292 -0.032234 -0.050231 94 94 94 255 
-0.000797 -0.032399 -0.052864 35 35 35 255 
-2.3e-005 -0.03381 -0.050231 83 83 83 255 
-0.002131 -0.034048 -0.052864 47 47 47 255 
1.4e-005 -0.036809 -0.050231 136 136 136 255 
-0.000428 -0.03933 -0.050231 160 160 160 255 
-0.002404 -0.041634 -0.050231 166 166 166 255 
-0.002692 -0.044494 -0.050231 177 177 177 255 
-0.003651 -0.046721 -0.050231 177 177 177 255 
-0.005199 -0.050245 -0.050282 160 160 160 255 
-0.00812 -0.058252 -0.050246 171 171 171 255 
-0.010096 -0.061417 -0.049886 171 171 171 255 
-0.013498 -0.066707 -0.050296 171 171 171 255 
-0.015902 -0.070183 -0.050231 177 177 177 255 
-0.017282 -0.072388 -0.050231 171 171 171 255 
-0.019084 -0.074428 -0.050231 177 177 177 255 
-0.024238 -0.076811 -0.050231 148 148 148 255 
-0.027209 -0.076649 -0.050231 106 106 106 255 
-0.028535 -0.07566 -0.050231 83 83 83 255 
-0.029962 -0.074463 -0.050231 41 41 41 255 
-0.03169 -0.073493 -0.05028 35 35 35 255 
-0.033464 -0.070958 -0.049801 53 53 53 255 
-0.032746 -0.066846 -0.047954 47 47 47 255 
-0.030851 -0.063028 -0.048154 41 41 41 255 
-0.029525 -0.062599 -0.050231 41 41 41 255 
-0.027514 -0.057845 -0.050231 41 41 41 255 
-0.028453 -0.056336 -0.048196 41 41 41 255 
-0.026168 -0.053109 -0.050231 35 35 35 255 
-0.02651 -0.048605 -0.050204 35 35 35 255 
-0.026689 -0.044587 -0.049783 23 23 23 255 
-0.026644 -0.039628 -0.050231 29 29 29 255 
-0.027569 -0.036611 -0.050231 41 41 41 255 
-0.029095 -0.033758 -0.050231 29 29 29 255 
-0.03218 -0.031087 -0.049976 41 41 41 255 
-0.034112 -0.028532 -0.050231 23 23 23 255 
-0.03718 -0.027813 -0.050231 35 35 35 255 
-0.040423 -0.028277 -0.050231 35 35 35 255 
-0.043762 -0.030022 -0.050231 29 29 29 255 
-0.046886 -0.032458 -0.050231 29 29 29 255 
-0.049348 -0.034981 -0.050231 35 35 35 255 
-0.051484 -0.037928 -0.050231 35 35 35 255 
-0.053404 -0.041813 -0.050231 35 35 35 255 
-0.055853 -0.04643 -0.050491 47 47 47 255 
-0.057554 -0.049576 -0.050231 47 47 47 255 
-0.033022 -0.073617 -0.050231 35 35 35 255 
-0.029252 -0.077176 -0.050231 94 94 94 255 
-0.030149 -0.078734 -0.050231 124 124 124 255 
-0.031913 -0.079814 -0.050231 166 166 166 255 
-0.033458 -0.079788 -0.050231 160 160 160 255 
-0.034306 -0.07991 -0.052864 154 154 154 255 
-0.034979 -0.079135 -0.050231 112 112 112 255 
-0.060317 -0.054289 -0.051311 59 59 59 255 
-0.0647 -0.057172 -0.050231 124 124 124 255 
-0.066057 -0.055903 -0.047534 124 124 124 255 
-0.067203 -0.052412 -0.050231 148 148 148 255 
-0.065253 -0.050205 -0.050231 77 77 77 255 
-0.034316 -0.086942 -0.047675 148 148 148 255 
-0.036901 -0.088 -0.050231 195 195 195 255 
-0.03738 -0.086746 -0.052864 195 195 195 255 
-0.038185 -0.088252 -0.050231 189 189 189 255 
-0.037729 -0.086356 -0.052864 189 189 189 255 
-0.038938 -0.085604 -0.050231 166 166 166 255 
-0.03808 -0.084334 -0.050231 154 154 154 255 
-0.03687 -0.083635 -0.050231 142 142 142 255 
-0.033561 -0.084974 -0.047521 136 136 136 255 
-0.066617 -0.048584 -0.050231 106 106 106 255 
-0.044714 -0.005468 -0.050231 29 29 29 255 
-0.015901 0.014048 -0.047587 124 124 124 255 
0.000973 0.049735 -0.050268 177 177 177 255 
0.002968 0.051184 -0.050231 166 166 166 255 
0.006844 0.049136 -0.050231 154 154 154 255 
-0.021589 -0.075956 -0.050231 171 171 171 255 
-0.059164 -0.052587 -0.050231 53 53 53 255 
-0.066554 -0.050956 -0.050231 112 112 112 255 
-0.049792 -0.09991 -0.050711 130 130 130 255 
-0.042949 -0.092286 -0.050234 166 166 166 255 
-0.043717 -0.091417 -0.050333 166 166 166 255 
-0.067657 -0.064564 -0.050305 142 142 142 255 
-0.068473 -0.065024 -0.050231 154 154 154 255 
-0.068905 -0.064403 -0.050314 154 154 154 255 
-0.055601 -0.04702 -0.047579 41 41 41 255 
-0.056839 -0.050286 -0.047579 41 41 41 255 
-0.058265 -0.052517 -0.047579 47 47 47 255 
-0.059056 -0.054844 -0.044929 41 41 41 255 
-0.061511 -0.056616 -0.047579 71 71 71 255 
-0.064244 -0.056867 -0.047579 112 112 112 255 
-0.067154 -0.053486 -0.047579 136 136 136 255 
-0.068412 -0.051274 -0.047579 148 148 148 255 
-0.069317 -0.048857 -0.047579 148 148 148 255 
-0.069496 -0.046001 -0.047579 160 160 160 255 
-0.069171 -0.043242 -0.047579 183 183 183 255 
-0.068323 -0.04061 -0.047579 171 171 171 255 
-0.067159 -0.039155 -0.044907 171 171 171 255 
-0.059655 -0.021827 -0.045526 189 189 189 255 
-0.058741 -0.018441 -0.046837 166 166 166 255 
-0.055954 -0.014101 -0.047579 154 154 154 255 
-0.054208 -0.012071 -0.047579 148 148 148 255 
-0.05349 -0.009249 -0.047579 148 148 148 255 
-0.052976 -0.006605 -0.047579 171 171 171 255 
-0.049066 -0.00394 -0.047579 118 118 118 255 
-0.047336 -0.00241 -0.047579 77 77 77 255 
-0.049155 -7.3e-005 -0.047579 154 154 154 255 
-0.047947 0.00289 -0.047579 142 142 142 255 
-0.04746 0.005192 -0.047579 166 166 166 255 
-0.040546 0.013755 -0.047579 177 177 177 255 
-0.031347 0.01278 -0.045303 148 148 148 255 
-0.026606 0.014884 -0.047579 148 148 148 255 
-0.02189 0.012822 -0.047415 118 118 118 255 
-0.018695 0.013166 -0.047579 130 130 130 255 
-0.013555 0.015644 -0.047579 136 136 136 255 
-0.011778 0.018364 -0.047579 124 124 124 255 
-0.010901 0.021299 -0.047579 148 148 148 255 
-0.009514 0.023495 -0.046572 154 154 154 255 
-0.009119 0.026368 -0.047187 160 160 160 255 
-0.006848 0.031621 -0.047408 171 171 171 255 
-0.004988 0.037025 -0.047338 154 154 154 255 
-0.004399 0.039261 -0.047671 160 160 160 255 
-0.000755 0.046822 -0.047505 160 160 160 255 
0.00134 0.050857 -0.047579 183 183 183 255 
0.003986 0.052425 -0.047579 189 189 189 255 
0.007264 0.05046 -0.047579 195 195 195 255 
0.007445 0.047565 -0.047579 183 183 183 255 
0.007391 0.043646 -0.045062 183 183 183 255 
0.006551 0.033805 -0.047493 154 154 154 255 
0.005337 0.024776 -0.047717 136 136 136 255 
0.003491 0.018322 -0.047579 124 124 124 255 
0.002733 0.015782 -0.047579 112 112 112 255 
0.001355 0.01064 -0.047579 106 106 106 255 
0.002037 0.007727 -0.047579 130 130 130 255 
0.001336 0.005017 -0.047579 130 130 130 255 
0.000535 0.002411 -0.047579 106 106 106 255 
0.000251 -0.000243 -0.047579 112 112 112 255 
0.000506 -0.002912 -0.047579 124 124 124 255 
0.001217 -0.005522 -0.047579 130 130 130 255 
0.003155 -0.010648 -0.047579 124 124 124 255 
0.009674 -0.01611 -0.045901 183 183 183 255 
0.011823 -0.017318 -0.047579 171 171 171 255 
0.012304 -0.020978 -0.047579 189 189 189 255 
0.011299 -0.024151 -0.047579 189 189 189 255 
0.010172 -0.026193 -0.044939 189 189 189 255 
0.004229 -0.032233 -0.047579 148 148 148 255 
0.001242 -0.032855 -0.047579 112 112 112 255 
0.001209 -0.035344 -0.047579 148 148 148 255 
0.000171 -0.037576 -0.047579 154 154 154 255 
-0.000874 -0.038737 -0.045388 171 171 171 255 
-0.003793 -0.041498 -0.047592 142 142 142 255 
-0.005116 -0.043689 -0.047579 154 154 154 255 
-0.005437 -0.046723 -0.047567 160 160 160 255 
-0.007427 -0.049025 -0.04555 154 154 154 255 
-0.008789 -0.055244 -0.04688 171 171 171 255 
-0.011089 -0.059525 -0.044929 183 183 183 255 
-0.012776 -0.063826 -0.047579 171 171 171 255 
-0.014549 -0.065809 -0.047579 160 160 160 255 
-0.016009 -0.067791 -0.046471 148 148 148 255 
-0.018145 -0.072402 -0.047562 177 177 177 255 
-0.020372 -0.075077 -0.047116 160 160 160 255 
-0.022303 -0.076592 -0.047579 160 160 160 255 
-0.024793 -0.077724 -0.047579 130 130 130 255 
-0.027151 -0.0788 -0.047579 142 142 142 255 
-0.02943 -0.079625 -0.047579 142 142 142 255 
-0.031808 -0.080101 -0.047579 112 112 112 255 
-0.033962 -0.080365 -0.047579 106 106 106 255 
-0.036037 -0.078787 -0.047579 77 77 77 255 
-0.036704 -0.076253 -0.047579 53 53 53 255 
-0.036209 -0.073721 -0.047245 35 35 35 255 
-0.034879 -0.07121 -0.047579 47 47 47 255 
-0.0297 -0.059291 -0.047579 35 35 35 255 
-0.028794 -0.053035 -0.047574 41 41 41 255 
-0.029349 -0.048129 -0.047579 35 35 35 255 
-0.030041 -0.045692 -0.047579 29 29 29 255 
-0.03133 -0.042436 -0.047579 29 29 29 255 
-0.033209 -0.039358 -0.047579 35 35 35 255 
-0.038227 -0.035826 -0.047579 29 29 29 255 
-0.041741 -0.035772 -0.047596 35 35 35 255 
-0.045004 -0.037167 -0.047579 29 29 29 255 
-0.047639 -0.03879 -0.047579 35 35 35 255 
-0.050408 -0.041063 -0.047579 35 35 35 255 
-0.05291 -0.043446 -0.047579 41 41 41 255 
-0.039839 -0.08839 -0.047579 142 142 142 255 
-0.039356 -0.087071 -0.050231 166 166 166 255 
-0.04059 -0.086701 -0.047579 130 130 130 255 
-0.040558 -0.084989 -0.047579 94 94 94 255 
-0.03931 -0.082697 -0.047579 88 88 88 255 
-0.035928 -0.08152 -0.047579 100 100 100 255 
-0.035614 -0.084115 -0.050231 154 154 154 255 
-0.03529 -0.087928 -0.047579 171 171 171 255 
-0.036807 -0.088906 -0.047579 189 189 189 255 
-0.04826 -0.100034 -0.04396 171 171 171 255 
-0.049121 -0.101057 -0.045319 183 183 183 255 
-0.051029 -0.100466 -0.045126 166 166 166 255 
-0.051144 -0.099232 -0.04508 160 160 160 255 
-0.049039 -0.098859 -0.044978 166 166 166 255 
-0.042317 -0.091156 -0.048403 177 177 177 255 
-0.043019 -0.091614 -0.050231 171 171 171 255 
-0.042319 -0.092612 -0.047981 183 183 183 255 
-0.043655 -0.092634 -0.050231 183 183 183 255 
-0.044255 -0.09444 -0.045712 183 183 183 255 
-0.044003 -0.092243 -0.050231 166 166 166 255 
-0.046283 -0.091945 -0.0452 118 118 118 255 
-0.045671 -0.090483 -0.044905 106 106 106 255 
-0.066853 -0.063659 -0.047579 136 136 136 255 
-0.067008 -0.065688 -0.047579 142 142 142 255 
-0.068022 -0.066477 -0.047579 142 142 142 255 
-0.070338 -0.066005 -0.045524 154 154 154 255 
-0.069992 -0.064267 -0.047579 171 171 171 255 
-0.069501 -0.062153 -0.045766 130 130 130 255 
-0.068435 -0.063804 -0.05016 148 148 148 255 
-0.066691 -0.061737 -0.045358 100 100 100 255 
-0.079523 -0.093463 -0.0476 171 171 171 255 
-0.080041 -0.093309 -0.047749 160 160 160 255 
-0.079637 -0.092933 -0.047712 160 160 160 255 
-0.056636 -0.110134 -0.047647 160 160 160 255 
-0.057182 -0.109984 -0.047641 154 154 154 255 
-0.056741 -0.109614 -0.047716 142 142 142 255 
-0.076024 -0.081322 -0.047579 154 154 154 255 
-0.076178 -0.082326 -0.047587 166 166 166 255 
-0.075511 -0.081713 -0.0476 166 166 166 255 
-0.070143 -0.074539 -0.047579 148 148 148 255 
-0.069857 -0.074279 -0.047387 148 148 148 255 
-0.070809 -0.074253 -0.047633 154 154 154 255 
-0.070382 -0.073619 -0.047656 148 148 148 255 
-0.067523 -0.067128 -0.044946 112 112 112 255 
-0.06924 -0.067013 -0.046024 142 142 142 255 
-0.070742 -0.064558 -0.044946 160 160 160 255 
-0.070274 -0.062859 -0.044946 142 142 142 255 
-0.068131 -0.061234 -0.044946 106 106 106 255 
-0.065401 -0.062923 -0.044946 65 65 65 255 
-0.065657 -0.064628 -0.045591 94 94 94 255 
-0.066174 -0.066002 -0.044946 83 83 83 255 
-0.03262 -0.082418 -0.044955 100 100 100 255 
-0.035545 -0.080381 -0.044946 35 35 35 255 
-0.037418 -0.07689 -0.044946 59 59 59 255 
-0.037549 -0.073901 -0.043884 41 41 41 255 
-0.031865 -0.059573 -0.044959 47 47 47 255 
-0.031765 -0.056564 -0.044946 35 35 35 255 
-0.032315 -0.054127 -0.044946 29 29 29 255 
-0.033493 -0.051586 -0.044739 41 41 41 255 
-0.034388 -0.049399 -0.044927 41 41 41 255 
-0.035935 -0.047115 -0.044946 35 35 35 255 
-0.03916 -0.044377 -0.044868 35 35 35 255 
-0.042798 -0.042261 -0.044946 17 17 17 255 
-0.045361 -0.041393 -0.044946 23 23 23 255 
-0.04915 -0.041581 -0.044946 35 35 35 255 
-0.053805 -0.045897 -0.044911 35 35 35 255 
-0.054596 -0.045297 -0.047579 41 41 41 255 
-0.05639 -0.049048 -0.044946 23 23 23 255 
-0.061699 -0.057587 -0.044881 71 71 71 255 
-0.066797 -0.057464 -0.044946 94 94 94 255 
-0.069418 -0.053325 -0.044897 136 136 136 255 
-0.070109 -0.05056 -0.044946 166 166 166 255 
-0.070422 -0.047863 -0.044946 195 195 195 255 
-0.070042 -0.045092 -0.044946 189 189 189 255 
-0.068861 -0.042471 -0.044946 177 177 177 255 
-0.064015 -0.033641 -0.045036 177 177 177 255 
-0.055805 -0.016198 -0.044946 171 171 171 255 
-0.053025 -0.014756 -0.044946 142 142 142 255 
-0.053566 -0.009824 -0.044946 171 171 171 255 
-0.05183 -0.00721 -0.044946 154 154 154 255 
-0.050573 -0.004933 -0.044946 154 154 154 255 
-0.051737 -0.004156 -0.047579 171 171 171 255 
-0.049502 -0.002477 -0.044946 148 148 148 255 
-0.048956 0.000185 -0.044946 171 171 171 255 
-0.046742 0.005116 -0.044946 166 166 166 255 
-0.044908 0.007135 -0.044946 160 160 160 255 
-0.043085 0.008424 -0.0427 166 166 166 255 
-0.041462 0.011206 -0.044946 183 183 183 255 
-0.03893 0.012635 -0.045059 171 171 171 255 
-0.027882 0.012393 -0.044946 136 136 136 255 
-0.025211 0.011159 -0.044946 136 136 136 255 
-0.019633 0.010069 -0.044356 124 124 124 255 
-0.017198 0.011704 -0.044946 136 136 136 255 
-0.014755 0.012809 -0.044946 130 130 130 255 
-0.010576 0.016282 -0.044946 118 118 118 255 
-0.008431 0.017868 -0.044946 106 106 106 255 
-0.008303 0.021819 -0.044946 148 148 148 255 
-0.003893 0.030839 -0.042341 183 183 183 255 
-0.003002 0.039574 -0.044946 183 183 183 255 
-0.001034 0.044416 -0.044918 195 195 195 255 
0.00187 0.049162 -0.044946 195 195 195 255 
0.003679 0.051084 -0.044946 219 219 219 255 
0.005817 0.050951 -0.044946 201 201 201 255 
0.006175 0.05224 -0.047579 171 171 171 255 
0.006582 0.048883 -0.044946 213 213 213 255 
0.007174 0.046408 -0.044946 183 183 183 255 
0.007048 0.038815 -0.044932 171 171 171 255 
0.006905 0.035599 -0.044946 171 171 171 255 
0.006784 0.032849 -0.044921 177 177 177 255 
0.005235 0.022892 -0.044989 171 171 171 255 
0.004325 0.019742 -0.044946 160 160 160 255 
0.00266 0.017393 -0.044946 148 148 148 255 
0.000971 0.015194 -0.044946 106 106 106 255 
0.000425 0.012286 -0.044946 94 94 94 255 
0.002516 0.008983 -0.044946 154 154 154 255 
0.001878 0.005378 -0.044741 130 130 130 255 
0.000191 0.001274 -0.044946 124 124 124 255 
-0.000116 -0.001516 -0.044946 130 130 130 255 
-0.000245 -0.004121 -0.044946 130 130 130 255 
-0.00042 -0.006753 -0.044946 130 130 130 255 
0.001689 -0.008249 -0.047579 124 124 124 255 
0.000428 -0.009529 -0.044946 124 124 124 255 
0.004772 -0.013694 -0.044946 136 136 136 255 
0.007348 -0.014656 -0.044946 142 142 142 255 
0.010472 -0.018301 -0.044946 177 177 177 255 
0.01077 -0.02115 -0.044946 183 183 183 255 
0.00826 -0.028926 -0.044946 171 171 171 255 
0.006532 -0.030883 -0.044946 166 166 166 255 
0.002063 -0.033939 -0.045031 142 142 142 255 
0.000516 -0.036193 -0.044946 148 148 148 255 
-0.005065 -0.041905 -0.044946 154 154 154 255 
-0.00619 -0.046105 -0.044946 171 171 171 255 
-0.012917 -0.063439 -0.044946 166 166 166 255 
-0.014997 -0.065599 -0.044946 160 160 160 255 
-0.018443 -0.070956 -0.042263 166 166 166 255 
-0.019727 -0.073408 -0.042846 177 177 177 255 
-0.023712 -0.078712 -0.044946 154 154 154 255 
-0.026452 -0.080556 -0.04495 142 142 142 255 
-0.030977 -0.082601 -0.044946 118 118 118 255 
-0.078274 -0.093573 -0.042221 160 160 160 255 
-0.080341 -0.094839 -0.04235 195 195 195 255 
-0.08137 -0.09394 -0.042362 213 213 213 255 
-0.080095 -0.092121 -0.044946 183 183 183 255 
-0.078835 -0.092152 -0.042266 148 148 148 255 
-0.055153 -0.110215 -0.042259 201 201 201 255 
-0.0574 -0.111607 -0.042419 231 231 231 255 
-0.058624 -0.110355 -0.042364 201 201 201 255 
-0.057362 -0.108092 -0.042563 177 177 177 255 
-0.05579 -0.108753 -0.042249 177 177 177 255 
-0.074905 -0.082022 -0.044946 160 160 160 255 
-0.075658 -0.082274 -0.047579 166 166 166 255 
-0.075287 -0.083317 -0.042677 166 166 166 255 
-0.076517 -0.083308 -0.042731 166 166 166 255 
-0.077513 -0.082465 -0.042649 189 189 189 255 
-0.076461 -0.081554 -0.047579 177 177 177 255 
-0.076402 -0.080474 -0.042442 160 160 160 255 
-0.075159 -0.080928 -0.042302 160 160 160 255 
-0.070981 -0.075973 -0.043341 166 166 166 255 
-0.072283 -0.075066 -0.042452 160 160 160 255 
-0.071482 -0.073352 -0.044946 160 160 160 255 
-0.070535 -0.072765 -0.044946 148 148 148 255 
-0.069544 -0.073172 -0.044946 130 130 130 255 
-0.03977 -0.089636 -0.042864 124 124 124 255 
-0.040844 -0.092767 -0.044946 136 136 136 255 
-0.043009 -0.094409 -0.044972 177 177 177 255 
-0.045491 -0.093636 -0.046192 154 154 154 255 
-0.046308 -0.093023 -0.044946 136 136 136 255 
-0.043931 -0.089273 -0.045086 83 83 83 255 
-0.042107 -0.089128 -0.044946 94 94 94 255 
-0.050192 -0.101287 -0.045118 183 183 183 255 
-0.050248 -0.098449 -0.04499 136 136 136 255 
-0.037501 -0.079714 -0.044946 47 47 47 255 
-0.037746 -0.081447 -0.047579 77 77 77 255 
-0.033973 -0.08282 -0.047579 112 112 112 255 
-0.032798 -0.084468 -0.044946 124 124 124 255 
-0.034398 -0.086432 -0.044946 130 130 130 255 
-0.036693 -0.088043 -0.044946 160 160 160 255 
-0.038296 -0.088765 -0.044946 142 142 142 255 
-0.038638 -0.089269 -0.047579 171 171 171 255 
-0.039718 -0.088177 -0.044946 106 106 106 255 
-0.041 -0.085285 -0.044946 83 83 83 255 
-0.039661 -0.081911 -0.045453 47 47 47 255 
-0.00536 0.023579 -0.042295 177 177 177 255 
-0.005198 0.02647 -0.042295 183 183 183 255 
-0.003083 0.03453 -0.042292 201 201 201 255 
-0.001109 0.039118 -0.042298 201 201 201 255 
0.002167 0.044477 -0.042295 207 207 207 255 
0.004238 0.044672 -0.042295 219 219 219 255 
0.005682 0.043302 -0.042295 201 201 201 255 
0.005471 0.039956 -0.042295 201 201 201 255 
0.004317 0.035776 -0.042298 189 189 189 255 
0.002685 0.031858 -0.042293 160 160 160 255 
6.6e-005 0.022649 -0.042292 124 124 124 255 
-0.000404 0.018848 -0.044946 71 71 71 255 
-0.002488 0.021503 -0.042295 124 124 124 255 
-0.003084 0.019955 -0.044946 65 65 65 255 
-0.004556 0.022186 -0.042295 142 142 142 255 
-0.006085 0.020875 -0.044946 118 118 118 255 
0.000912 0.014731 -0.042295 94 94 94 255 
0.00248 0.011769 -0.042286 130 130 130 255 
0.002422 0.008827 -0.042295 154 154 154 255 
0.001415 0.005164 -0.042295 148 148 148 255 
-0.000343 0.001342 -0.042254 136 136 136 255 
-0.002017 -0.00269 -0.040833 136 136 136 255 
-0.001564 -0.00774 -0.042295 136 136 136 255 
-0.001403 -0.010423 -0.042295 130 130 130 255 
2.6e-005 -0.013154 -0.042302 136 136 136 255 
0.0013 -0.01523 -0.040153 148 148 148 255 
0.00484 -0.016233 -0.039863 148 148 148 255 
0.00764 -0.016365 -0.042295 177 177 177 255 
0.009554 -0.017913 -0.042295 183 183 183 255 
0.009608 -0.020657 -0.042295 177 177 177 255 
0.008266 -0.0248 -0.039976 189 189 189 255 
0.006733 -0.029056 -0.040391 183 183 183 255 
0.0065 -0.030616 -0.042295 177 177 177 255 
0.004822 -0.032728 -0.042295 166 166 166 255 
0.002742 -0.034499 -0.042295 171 171 171 255 
0.000346 -0.035863 -0.042295 154 154 154 255 
-0.001471 -0.038054 -0.042295 166 166 166 255 
-0.003333 -0.039742 -0.042295 166 166 166 255 
-0.005941 -0.04088 -0.042295 142 142 142 255 
-0.007223 -0.043396 -0.044946 124 124 124 255 
-0.009346 -0.045764 -0.042295 142 142 142 255 
-0.008686 -0.048179 -0.042295 166 166 166 255 
-0.009757 -0.051451 -0.042295 171 171 171 255 
-0.012904 -0.056134 -0.039559 171 171 171 255 
-0.015246 -0.063475 -0.040322 171 171 171 255 
-0.016474 -0.066886 -0.042256 166 166 166 255 
-0.022309 -0.07782 -0.042295 171 171 171 255 
-0.023891 -0.079958 -0.042295 171 171 171 255 
-0.025805 -0.081839 -0.042295 160 160 160 255 
-0.028247 -0.083371 -0.042295 142 142 142 255 
-0.030624 -0.084662 -0.042295 130 130 130 255 
-0.032993 -0.085968 -0.042295 112 112 112 255 
-0.035518 -0.086896 -0.042295 112 112 112 255 
-0.037783 -0.087816 -0.042295 112 112 112 255 
-0.039024 -0.087859 -0.042295 83 83 83 255 
-0.040476 -0.087146 -0.042295 47 47 47 255 
-0.040907 -0.086966 -0.044946 100 100 100 255 
-0.041584 -0.085969 -0.042295 47 47 47 255 
-0.041677 -0.084431 -0.042295 41 41 41 255 
-0.040936 -0.08186 -0.042295 47 47 47 255 
-0.039531 -0.079274 -0.042295 41 41 41 255 
-0.038744 -0.076962 -0.042295 53 53 53 255 
-0.035425 -0.064988 -0.042146 35 35 35 255 
-0.034076 -0.061328 -0.042295 47 47 47 255 
-0.033882 -0.058093 -0.042275 35 35 35 255 
-0.038821 -0.050353 -0.042295 35 35 35 255 
-0.041602 -0.048857 -0.042295 29 29 29 255 
-0.045101 -0.047958 -0.042295 29 29 29 255 
-0.047026 -0.041089 -0.044946 35 35 35 255 
-0.048905 -0.04844 -0.042295 35 35 35 255 
-0.05129 -0.049469 -0.042295 23 23 23 255 
-0.053438 -0.051404 -0.042295 35 35 35 255 
-0.055162 -0.053685 -0.042295 35 35 35 255 
-0.054881 -0.059315 -0.03958 35 35 35 255 
-0.061087 -0.060803 -0.042364 53 53 53 255 
-0.063523 -0.058716 -0.044946 88 88 88 255 
-0.064653 -0.060471 -0.042295 53 53 53 255 
-0.065415 -0.058727 -0.044946 88 88 88 255 
-0.066218 -0.059844 -0.042295 53 53 53 255 
-0.069678 -0.057233 -0.041956 100 100 100 255 
-0.070746 -0.050907 -0.042295 177 177 177 255 
-0.070473 -0.048198 -0.042295 189 189 189 255 
-0.069523 -0.045568 -0.042295 177 177 177 255 
-0.06813 -0.043172 -0.042295 177 177 177 255 
-0.065816 -0.039434 -0.042415 177 177 177 255 
-0.062083 -0.034361 -0.042302 148 148 148 255 
-0.059902 -0.031582 -0.040195 166 166 166 255 
-0.058572 -0.025967 -0.041883 177 177 177 255 
-0.056789 -0.02195 -0.042295 171 171 171 255 
-0.055865 -0.019417 -0.042295 171 171 171 255 
-0.053543 -0.017464 -0.042295 154 154 154 255 
-0.052074 -0.014573 -0.042258 142 142 142 255 
-0.05372 -0.012137 -0.044946 160 160 160 255 
-0.052642 -0.010718 -0.042295 166 166 166 255 
-0.051346 -0.007357 -0.040858 160 160 160 255 
-0.050305 -0.005329 -0.042295 154 154 154 255 
-0.04939 -0.002882 -0.042295 154 154 154 255 
-0.048878 -0.000199 -0.042295 171 171 171 255 
-0.048166 0.001752 -0.040207 183 183 183 255 
-0.048304 0.002765 -0.044946 166 166 166 255 
-0.044024 0.006624 -0.039953 177 177 177 255 
-0.040681 0.010453 -0.042295 171 171 171 255 
-0.037612 0.011183 -0.042295 160 160 160 255 
-0.032749 0.010821 -0.042162 154 154 154 255 
-0.02942 0.010852 -0.042295 148 148 148 255 
-0.026713 0.01019 -0.042295 154 154 154 255 
-0.024311 0.008046 -0.042295 130 130 130 255 
-0.021741 0.007306 -0.042295 124 124 124 255 
-0.016255 0.009718 -0.042295 130 130 130 255 
-0.013979 0.01156 -0.042145 124 124 124 255 
-0.01202 0.013693 -0.042295 130 130 130 255 
-0.012494 0.014338 -0.044946 130 130 130 255 
-0.009673 0.015995 -0.041503 124 124 124 255 
-0.007096 0.018056 -0.042365 118 118 118 255 
-0.00525 0.01897 -0.042295 130 130 130 255 
-0.003422 0.018984 -0.042295 106 106 106 255 
-0.000667 0.016758 -0.042295 65 65 65 255 
-0.074822 -0.082199 -0.042295 160 160 160 255 
-0.077148 -0.081318 -0.044946 171 171 171 255 
-0.055922 -0.111529 -0.042305 225 225 225 255 
-0.058069 -0.109344 -0.044946 201 201 201 255 
-0.05849 -0.108791 -0.042295 183 183 183 255 
-0.047256 -0.101632 -0.040223 154 154 154 255 
-0.049163 -0.102712 -0.042295 183 183 183 255 
-0.050753 -0.102467 -0.042295 166 166 166 255 
-0.052396 -0.099375 -0.042295 106 106 106 255 
-0.051722 -0.097925 -0.042295 94 94 94 255 
-0.050129 -0.097291 -0.042295 118 118 118 255 
-0.068516 -0.073538 -0.042295 112 112 112 255 
-0.068554 -0.075029 -0.042295 118 118 118 255 
-0.069497 -0.07541 -0.044946 142 142 142 255 
-0.069782 -0.07633 -0.042295 124 124 124 255 
-0.072421 -0.073528 -0.042295 160 160 160 255 
-0.071352 -0.071991 -0.041894 160 160 160 255 
-0.069565 -0.072041 -0.042295 136 136 136 255 
-0.078985 -0.094849 -0.042316 177 177 177 255 
-0.080965 -0.092665 -0.044946 207 207 207 255 
-0.081274 -0.092516 -0.042295 207 207 207 255 
-0.040859 -0.089063 -0.043621 112 112 112 255 
-0.040187 -0.091475 -0.044266 136 136 136 255 
-0.039144 -0.091941 -0.039863 118 118 118 255 
-0.041401 -0.094064 -0.042348 142 142 142 255 
-0.043837 -0.095393 -0.042295 160 160 160 255 
-0.045337 -0.095341 -0.042295 160 160 160 255 
-0.046979 -0.093309 -0.042295 100 100 100 255 
-0.046946 -0.092024 -0.042295 94 94 94 255 
-0.046495 -0.090825 -0.042295 59 59 59 255 
-0.044259 -0.08852 -0.041535 47 47 47 255 
-0.042414 -0.088102 -0.042295 65 65 65 255 
-0.069332 -0.060213 -0.042295 88 88 88 255 
-0.063161 -0.063691 -0.042295 41 41 41 255 
-0.063512 -0.065629 -0.042295 53 53 53 255 
-0.066758 -0.068278 -0.042295 77 77 77 255 
-0.068657 -0.068028 -0.042295 118 118 118 255 
-0.070118 -0.066858 -0.039458 100 100 100 255 
-0.07051 -0.064607 -0.042295 136 136 136 255 
-0.070204 -0.062308 -0.042295 130 130 130 255 
-0.063509 -0.061709 -0.042295 41 41 41 255 
-0.064839 -0.067395 -0.042295 77 77 77 255 
-0.067925 -0.059258 -0.042295 88 88 88 255 
-0.07092 -0.053681 -0.042295 171 171 171 255 
-0.049901 -0.017198 -0.042295 83 83 83 255 
-0.009005 -0.041159 -0.042295 83 83 83 255 
-0.010877 -0.042016 -0.042295 47 47 47 255 
-0.011872 -0.044182 -0.042295 77 77 77 255 
-0.053271 -0.056994 -0.039663 29 29 29 255 
-0.075341 -0.100514 -0.042318 177 177 177 255 
-0.075717 -0.098961 -0.042295 166 166 166 255 
-0.07631 -0.099486 -0.042335 166 166 166 255 
-0.074714 -0.099709 -0.042413 166 166 166 255 
-0.066867 -0.10841 -0.042352 189 189 189 255 
-0.066267 -0.10769 -0.042326 171 171 171 255 
-0.067909 -0.107468 -0.042328 183 183 183 255 
-0.067781 -0.071807 -0.039661 47 47 47 255 
-0.067408 -0.073796 -0.039661 35 35 35 255 
-0.069086 -0.07697 -0.039661 94 94 94 255 
-0.071299 -0.077308 -0.039661 112 112 112 255 
-0.072979 -0.076237 -0.039661 130 130 130 255 
-0.073935 -0.074539 -0.039184 136 136 136 255 
-0.072982 -0.072096 -0.039661 118 118 118 255 
-0.050135 -0.104315 -0.039661 160 160 160 255 
-0.052237 -0.103467 -0.039661 148 148 148 255 
-0.052091 -0.100893 -0.042295 130 130 130 255 
-0.05381 -0.101416 -0.039661 94 94 94 255 
-0.052954 -0.097064 -0.039661 65 65 65 255 
-0.050647 -0.095794 -0.039661 59 59 59 255 
-0.047972 -0.09629 -0.039661 94 94 94 255 
-0.048527 -0.097876 -0.042295 136 136 136 255 
-0.04676 -0.098672 -0.039661 136 136 136 255 
-0.048509 -0.103703 -0.039661 160 160 160 255 
-0.077414 -0.094819 -0.039661 59 59 59 255 
-0.079162 -0.096317 -0.039661 142 142 142 255 
-0.081071 -0.095767 -0.039661 177 177 177 255 
-0.082783 -0.09298 -0.039661 201 201 201 255 
-0.081809 -0.090989 -0.039661 189 189 189 255 
-0.080253 -0.091457 -0.042295 177 177 177 255 
-0.078208 -0.090971 -0.039661 88 88 88 255 
-0.077235 -0.092797 -0.039661 77 77 77 255 
-0.055439 -0.112663 -0.039661 207 207 207 255 
-0.059991 -0.110964 -0.039661 160 160 160 255 
-0.059745 -0.109128 -0.039661 124 124 124 255 
-0.058504 -0.106718 -0.039661 88 88 88 255 
-0.056425 -0.106925 -0.039661 88 88 88 255 
-0.054722 -0.108637 -0.039661 130 130 130 255 
-0.054389 -0.111016 -0.039661 207 207 207 255 
-0.074903 -0.101961 -0.039661 171 171 171 255 
-0.076735 -0.101263 -0.039661 177 177 177 255 
-0.077814 -0.099111 -0.039661 166 166 166 255 
-0.076302 -0.097523 -0.039661 130 130 130 255 
-0.074468 -0.098261 -0.039661 124 124 124 255 
-0.073676 -0.099314 -0.039661 136 136 136 255 
-0.073376 -0.100753 -0.039661 142 142 142 255 
-0.075206 -0.084115 -0.039661 112 112 112 255 
-0.076852 -0.084412 -0.039661 148 148 148 255 
-0.07853 -0.081116 -0.039661 160 160 160 255 
-0.077511 -0.081078 -0.042295 189 189 189 255 
-0.076493 -0.078769 -0.036931 124 124 124 255 
